ply
format ascii 1.0
element vertex 679
property float x
property float y
property float z
property uchar red
property uchar green
property uchar blue
end_header
-0.25066426396369934 -0.0596819669008255 2.984098434448242 0 3 0
-0.24992483854293823 -0.06022285297513008 3.0111427307128906 0 1 0
-0.24813413619995117 -0.06052051857113838 3.0260260105133057 3 3 1
-0.24710123240947723 -0.06101264804601669 3.0506324768066406 5 5 3
-0.24467693269252777 -0.06116923317313194 3.0584616661071777 8 10 5
-0.24253149330615997 -0.06140037253499031 3.070018768310547 17 20 13
-0.24056373536586761 -0.06168300658464432 3.0841503143310547 24 31 23
-0.23791104555130005 -0.06179507449269295 3.0897538661956787 27 43 30
-0.23535041511058807 -0.061934322118759155 3.0967161655426025 29 50 33
-0.23248988389968872 -0.061997298151254654 3.099864959716797 33 54 37
-0.22994445264339447 -0.062147147953510284 3.1073575019836426 36 57 38
-0.22788208723068237 -0.06243344768881798 3.1216723918914795 41 55 38
-0.22631514072418213 -0.06286531686782837 3.143265962600708 38 51 34
-0.22455069422721863 -0.06325370818376541 3.1626856327056885 36 49 32
-0.2231680452823639 -0.06376229971647263 3.188114881515503 35 48 31
-0.2208782285451889 -0.06402267515659332 3.2011337280273438 31 43 29
-0.217380553483963 -0.06393545120954514 3.196772575378418 30 42 28
-0.213798388838768 -0.06382041424512863 3.1910207271575928 31 43 29
-0.20892105996608734 -0.06330940872430801 3.165470600128174 32 46 31
-0.20466308295726776 -0.0629732608795166 3.14866304397583 38 55 37
-0.19992268085479736 -0.06247583404183388 3.1237916946411133 42 59 40
-0.19558338820934296 -0.062089961022138596 3.1044981479644775 54 69 50
-0.1915980577468872 -0.06180582568049431 3.0902912616729736 53 68 47
-0.18526864051818848 -0.06074381619691849 3.0371909141540527 38 52 27
-0.17665572464466095 -0.05888524278998375 2.9442622661590576 64 85 54
-0.16929635405540466 -0.05738858878612518 2.869429588317871 49 83 48
-0.16198594868183136 -0.05585722252726555 2.792861223220825 43 79 51
-0.15340633690357208 -0.05382678285241127 2.6913392543792725 62 94 83
-0.1456127166748047 -0.052004534751176834 2.600226879119873 41 65 52
-0.13880310952663422 -0.05047385394573212 2.5236928462982178 47 62 29
-0.13342860341072083 -0.049417998641729355 2.470900058746338 127 134 82
-0.12815673649311066 -0.04836103320121765 2.4180517196655273 134 133 68
-0.12356948852539062 -0.04752672463655472 2.3763363361358643 98 97 17
-0.11966677755117416 -0.046928148716688156 2.346407413482666 106 113 20
-0.11579426378011703 -0.046317704021930695 2.315885305404663 107 118 14
-0.1125737652182579 -0.04594847559928894 2.297423839569092 125 135 22
-0.10963112860918045 -0.04567963629961014 2.2839818000793457 199 207 95
-0.10648497939109802 -0.045312754809856415 2.2656378746032715 114 120 20
-0.10397358983755112 -0.04520590603351593 2.2602953910827637 99 104 4
-0.1014275848865509 -0.04507892578840256 2.253946304321289 147 147 35
-0.09890061616897583 -0.044954825192689896 2.247741222381592 170 176 54
-0.09610480070114136 -0.044699907302856445 2.2349953651428223 165 182 50
-0.09344732016324997 -0.04449872300028801 2.2249362468719482 152 175 35
-0.09087410569190979 -0.044328831136226654 2.2164416313171387 133 156 13
-0.08840522915124893 -0.044202614575624466 2.2101306915283203 113 139 0
-0.08617112040519714 -0.044190313667058945 2.2095158100128174 200 229 40
-0.0839615985751152 -0.044190313667058945 2.2095158100128174 204 233 31
-0.08178842812776566 -0.04420996084809303 2.210498094558716 216 238 41
-0.07984590530395508 -0.044358838349580765 2.217941999435425 225 239 64
-0.07776857912540436 -0.04443918541073799 2.221959352493286 231 233 100
-0.07579533755779266 -0.044585488736629486 2.2292745113372803 101 97 0
-0.07402393221855164 -0.04486298933625221 2.243149518966675 231 229 118
-0.07202158868312836 -0.045013487339019775 2.2506744861602783 238 238 118
-0.07009944319725037 -0.04522544890642166 2.261272430419922 208 210 75
-0.06810668855905533 -0.04540445655584335 2.2702229022979736 214 216 80
-0.06589990109205246 -0.04544820636510849 2.2724103927612305 249 245 120
-0.06362749636173248 -0.04544820636510849 2.2724103927612305 226 231 128
-0.06134604290127754 -0.045441512018442154 2.272075653076172 174 202 128
-0.05898687243461609 -0.045374516397714615 2.268725872039795 112 154 78
-0.05658726766705513 -0.045269813388586044 2.263490676879883 144 190 82
-0.05420735478401184 -0.0451727956533432 2.2586398124694824 159 201 65
-0.051775284111499786 -0.04502198472619057 2.2510993480682373 171 203 40
-0.049513690173625946 -0.045012444257736206 2.250622272491455 160 185 23
-0.04724876210093498 -0.04499882087111473 2.249941110610962 164 182 48
-0.045000381767749786 -0.045000381767749786 2.250019073486328 169 177 68
-0.04274887964129448 -0.04499882087111473 2.249941110610962 207 200 112
-0.040455110371112823 -0.04495012015104294 2.2475061416625977 238 220 146
-0.0382470041513443 -0.0449964702129364 2.249823570251465 255 245 176
-0.036034151911735535 -0.04504268616437912 2.252134323120117 205 191 130
-0.033790163695812225 -0.04505355283617973 2.2526776790618896 220 225 171
-0.0316910594701767 -0.045272938907146454 2.2636470794677734 224 233 188
-0.02964671328663826 -0.045610327273607254 2.2805163860321045 251 251 217
-0.027506034821271896 -0.04584338888525963 2.2921695709228516 27 21 0
-0.025270260870456696 -0.04594593122601509 2.2972965240478516 29 23 1
-0.022999580949544907 -0.04599916189908981 2.2999582290649414 94 85 68
-0.020767223089933395 -0.04614938795566559 2.307469367980957 121 109 97
-0.018399666994810104 -0.04599916189908981 2.2999582290649414 102 88 77
-0.016075002029538155 -0.04592857137322426 2.296428680419922 86 70 54
-0.013698702678084373 -0.04566233977675438 2.2831170558929443 91 75 52
-0.011359644122421741 -0.045438576489686966 2.2719287872314453 198 181 153
-0.00905544962733984 -0.045277245342731476 2.263862371444702 224 206 170
-0.0067778583616018295 -0.045185722410678864 2.2592861652374268 249 228 183
-0.004516953602433205 -0.04516953229904175 2.258476734161377 165 145 94
-0.0022584768012166023 -0.04516953229904175 2.258476734161377 190 174 122
0.0 -0.04518502578139305 2.259251356124878 159 150 91
0.002262334106490016 -0.045246679335832596 2.262334108352661 220 215 149
0.004527959506958723 -0.04527959227561951 2.26397967338562 142 148 84
0.00681562814861536 -0.0454375222325325 2.271876096725464 55 75 24
0.009106991812586784 -0.04553495720028877 2.276747941970825 52 85 40
0.011383739300072193 -0.04553495720028877 2.276747941970825 83 124 82
0.013660487718880177 -0.04553495720028877 2.276747941970825 62 104 58
0.01587541028857231 -0.045358315110206604 2.267915725708008 57 94 40
0.018000809475779533 -0.04500202089548111 2.250101089477539 71 102 35
0.020078279078006744 -0.0446184016764164 2.2309200763702393 133 155 80
0.02213308960199356 -0.04426617920398712 2.2133090496063232 217 229 155
0.02406310848891735 -0.043751105666160583 2.1875553131103516 177 177 113
0.025917375460267067 -0.04319562390446663 2.1597812175750732 161 161 107
0.02772793546319008 -0.04265836253762245 2.132918119430542 131 140 95
0.029541941359639168 -0.042202770709991455 2.1101386547088623 228 237 194
0.031412672251462936 -0.04188356176018715 2.0941781997680664 255 254 206
0.0333041250705719 -0.041630152612924576 2.081507682800293 225 215 154
0.0352642647922039 -0.04148736968636513 2.074368476867676 158 141 59
0.037314921617507935 -0.041461024433374405 2.0730512142181396 224 206 98
0.03934895619750023 -0.04141995310783386 2.070997714996338 235 222 84
0.041396982967853546 -0.041396982967853546 2.0698492527008057 213 205 62
0.043442584574222565 -0.04137388989329338 2.068694591522217 240 234 110
0.04551127925515175 -0.04137388989329338 2.068694591522217 197 195 95
0.047591909766197205 -0.041384268552064896 2.069213390350342 177 177 107
0.049669213593006134 -0.04139100760221481 2.0695505142211914 169 165 117
0.05178825929760933 -0.04143060743808746 2.071530342102051 167 155 117
0.05389613285660744 -0.04145856201648712 2.0729281902313232 213 198 165
0.05606351047754288 -0.041528522968292236 2.0764262676239014 252 239 204
0.05822010710835457 -0.04158578813076019 2.079289436340332 214 207 163
0.06044266000390053 -0.0416845940053463 2.0842297077178955 155 155 101
0.06257420033216476 -0.041716136038303375 2.0858068466186523 163 164 107
0.06467226147651672 -0.04172403737902641 2.0862019062042236 163 157 109
0.06676372140645981 -0.041727323085069656 2.0863661766052246 177 172 130
0.06886637210845947 -0.04173719137907028 2.086859703063965 143 145 108
0.07109902799129486 -0.041822951287031174 2.0911476612091064 219 228 185
0.07327612489461899 -0.04187207296490669 2.0936036109924316 245 255 198
0.07541825622320175 -0.04189903289079666 2.094951629638672 248 249 189
0.07779213786125183 -0.04204980283975601 2.102490186691284 239 219 168
0.08033373206853867 -0.04228091239929199 2.1140456199645996 201 173 123
0.0827227234840393 -0.04242190718650818 2.1210954189300537 56 35 0
0.08523441851139069 -0.04261720925569534 2.1308605670928955 201 190 111
0.08792247623205185 -0.04288901388645172 2.1444506645202637 253 251 142
0.09051728993654251 -0.04310347139835358 2.1551735401153564 244 242 107
0.0929475650191307 -0.04323142394423485 2.1615712642669678 230 217 63
0.09579041600227356 -0.04354109615087509 2.1770548820495605 237 224 68
0.09917949885129929 -0.044079773128032684 2.203988790512085 239 238 94
0.10273967683315277 -0.04466942325234413 2.233471155166626 198 208 85
0.10635049641132355 -0.04525553062558174 2.2627766132354736 142 163 70
0.11046455800533295 -0.04602689668536186 2.301344871520996 134 153 87
0.1152331605553627 -0.047033943235874176 2.3516972064971924 62 67 26
0.1196429654955864 -0.04785718396306038 2.3928592205047607 96 93 74
0.12382989376783371 -0.048560742288827896 2.428037166595459 109 103 103
0.1267705112695694 -0.0487578846514225 2.437894344329834 108 102 112
0.12932050228118896 -0.048800189048051834 2.440009593963623 105 101 115
0.13229763507843018 -0.04899912327528 2.449956178665161 107 105 119
0.13526643812656403 -0.0491877943277359 2.4593896865844727 107 104 123
0.1382748931646347 -0.04938388615846634 2.4691944122314453 107 106 124
0.1411951184272766 -0.0495421439409256 2.477107286453247 104 108 117
0.14425069093704224 -0.04974161833524704 2.4870810508728027 100 109 108
0.14707234501838684 -0.049855031073093414 2.4927515983581543 96 107 99
0.14993681013584137 -0.049978937953710556 2.4989469051361084 89 106 90
0.1527678519487381 -0.0500878170132637 2.5043909549713135 84 106 83
0.15523937344551086 -0.05007721856236458 2.5038609504699707 83 108 79
0.15754306316375732 -0.050013668835163116 2.500683546066284 79 108 78
0.1596343219280243 -0.049885720014572144 2.494286060333252 75 109 76
0.16196152567863464 -0.049834318459033966 2.491715908050537 65 105 71
0.16428686678409576 -0.049783896654844284 2.489194869995117 62 104 68
0.16574214398860931 -0.04947526380419731 2.4737632274627686 62 107 66
0.16731181740760803 -0.0492093563079834 2.46046781539917 66 109 63
0.16896356642246246 -0.04897494614124298 2.448747396469116 70 114 61
0.1704457551240921 -0.0486987866461277 2.434939384460449 74 118 59
0.1723199486732483 -0.04854083061218262 2.427041530609131 81 126 59
0.1740337461233139 -0.04834270849823952 2.41713547706604 92 142 69
0.17582392692565918 -0.04817093908786774 2.4085469245910645 101 158 79
0.17823247611522675 -0.04817093908786774 2.4085469245910645 111 176 92
0.1806410253047943 -0.04817093908786774 2.4085469245910645 103 178 93
0.1831807792186737 -0.04820546880364418 2.410273551940918 90 172 88
0.18645094335079193 -0.048428814858198166 2.421440839767456 80 167 88
0.18906213343143463 -0.04847746714949608 2.4238734245300293 78 166 90
0.1912938356399536 -0.048428814858198166 2.421440839767456 79 166 95
0.19373486936092377 -0.04843371734023094 2.4216859340667725 78 165 96
0.1956985741853714 -0.04832063615322113 2.416031837463379 79 164 99
0.19793058931827545 -0.04827575013041496 2.413787603378296 78 163 95
0.20011712610721588 -0.04822099581360817 2.4110498428344727 66 152 77
0.20236539840698242 -0.04818223789334297 2.409111976623535 64 151 70
0.20468468964099884 -0.0481611005961895 2.408055067062378 64 152 65
0.207213893532753 -0.048189274966716766 2.409463882446289 63 152 62
0.20977918803691864 -0.048225101083517075 2.411255121231079 59 148 58
0.21299836039543152 -0.048408716917037964 2.420435905456543 57 145 58
0.2162626087665558 -0.048598337918519974 2.4299168586730957 54 142 56
0.21943247318267822 -0.048762768507003784 2.438138484954834 51 141 54
0.22304320335388184 -0.04902048408985138 2.451024293899536 54 144 56
0.22576133906841278 -0.049078550189733505 2.453927516937256 54 144 56
0.22837743163108826 -0.049113426357507706 2.4556713104248047 53 143 53
0.2313539832830429 -0.04922425001859665 2.461212635040283 55 145 55
-0.2646680772304535 -0.05293361470103264 2.785979747772217 8 5 0
-0.2619987726211548 -0.0529571957886219 2.7872209548950195 9 12 1
-0.2596147656440735 -0.05303957313299179 2.7915565967559814 4 23 4
-0.2576850354671478 -0.053217560052871704 2.800924301147461 6 31 10
-0.25711002945899963 -0.05368231609463692 2.825385093688965 24 49 28
-0.2554435133934021 -0.05392695963382721 2.838261127471924 39 58 39
-0.2554173767566681 -0.05452730506658554 2.8698582649230957 47 55 42
-0.2542344629764557 -0.05489153042435646 2.8890280723571777 43 46 35
-0.2541636824607849 -0.05550701171159744 2.921421766281128 25 31 21
-0.2524895966053009 -0.055782582610845566 2.9359254837036133 15 20 13
-0.2513251006603241 -0.05617855116724968 2.95676589012146 1 8 1
-0.2501678168773651 -0.05658557638525963 2.9781882762908936 0 5 0
-0.2485281229019165 -0.05689198151230812 2.9943149089813232 0 2 0
-0.24743793904781342 -0.05733317509293556 3.01753568649292 3 5 0
-0.245542511343956 -0.05759638920426369 3.031388998031616 2 7 1
-0.24417077004909515 -0.057990558445453644 3.0521347522735596 5 10 3
-0.24158158898353577 -0.058101896196603775 3.0579946041107178 17 20 13
-0.2392977476119995 -0.058290474116802216 3.0679197311401367 22 30 19
-0.23733557760715485 -0.05856332182884216 3.082280158996582 25 41 28
-0.23470619320869446 -0.058676548302173615 3.0882394313812256 27 50 32
-0.23173406720161438 -0.05870595946907997 3.089787483215332 32 55 35
-0.2293900102376938 -0.05889743193984032 3.099864959716797 36 57 38
-0.22702865302562714 -0.059089645743370056 3.1099815368652344 38 55 37
-0.2252637892961502 -0.059444610029459 3.1286637783050537 36 51 32
-0.22361059486865997 -0.05983944982290268 3.149444818496704 35 48 31
-0.221321240067482 -0.06007290631532669 3.1617319583892822 32 46 29
-0.2195657342672348 -0.060460131615400314 3.182112216949463 30 43 26
-0.21638363599777222 -0.060460131615400314 3.182112216949463 27 41 26
-0.2120865285396576 -0.06014394015073776 3.165470600128174 28 40 26
-0.2084612101316452 -0.06001156195998192 3.158503293991089 30 44 29
-0.20355072617530823 -0.05949944630265236 3.131549835205078 33 52 33
-0.19908146560192108 -0.05910230427980423 3.110647678375244 38 57 38
-0.19493861496448517 -0.058791011571884155 3.094263792037964 42 61 42
-0.19103309512138367 -0.0585423968732357 3.081178903579712 54 71 55
-0.18526864051818848 -0.057706624269485474 3.0371909141540527 64 76 62
-0.17691585421562195 -0.056023355573415756 2.9485976696014404 57 76 57
-0.17008566856384277 -0.054773349314928055 2.882807970046997 44 79 47
-0.16283270716667175 -0.05334175005555153 2.8074605464935303 31 70 39
-0.1543245166540146 -0.051441505551338196 2.7074477672576904 49 81 60
-0.1468852162361145 -0.04983605444431305 2.622950315475464 48 70 49
-0.14040745794773102 -0.04850439354777336 2.5528628826141357 47 52 20
-0.13425816595554352 -0.04723898321390152 2.486262321472168 91 89 48
-0.12914539873600006 -0.046297404915094376 2.4367055892944336 110 112 62
-0.1244611144065857 -0.04547617584466934 2.3934829235076904 175 186 126
-0.12032076716423035 -0.04482538253068924 2.3592307567596436 179 210 142
-0.11633266508579254 -0.0442064106464386 2.326653242111206 30 68 0
-0.11304053664207458 -0.043832045048475266 2.3069498538970947 144 176 77
-0.10991031676530838 -0.043506164103746414 2.2897982597351074 156 177 76
-0.10648497939109802 -0.04304711893200874 2.2656378746032715 163 166 77
-0.10389654338359833 -0.04291378706693649 2.258620500564575 67 57 0
-0.10122611373662949 -0.04273990914225578 2.249469041824341 176 157 63
-0.09860078990459442 -0.04257760941982269 2.24092698097229 186 171 68
-0.09589961171150208 -0.04237424209713936 2.2302234172821045 180 178 65
-0.0932963564991951 -0.04220549389719963 2.221341848373413 156 162 38
-0.09067416191101074 -0.04201972857117653 2.211564779281616 153 164 26
-0.08823034912347794 -0.041909415274858475 2.205758810043335 238 255 94
-0.08601836860179901 -0.04190637916326523 2.205599069595337 174 200 5
-0.08381553739309311 -0.041907768696546555 2.205672025680542 203 231 24
-0.08176326006650925 -0.04198653995990753 2.209817886352539 196 217 24
-0.07984590530395508 -0.0421408973634243 2.217941999435425 175 187 25
-0.07793883979320526 -0.042309656739234924 2.2268240451812744 239 237 128
-0.07605978846549988 -0.04250399395823479 2.2370524406433105 68 60 0
-0.07426387816667557 -0.04275798797607422 2.250420570373535 103 97 19
-0.07236072421073914 -0.04296417534351349 2.261272430419922 144 143 53
-0.07044471800327301 -0.043175797909498215 2.2724103927612305 242 245 130
-0.06833150237798691 -0.04327661916613579 2.277716875076294 232 232 112
-0.06606346368789673 -0.04328295961022377 2.278050661087036 231 219 111
-0.06378541886806488 -0.04328295961022377 2.278050661087036 159 155 66
-0.06144081428647041 -0.04323612526059151 2.275585651397705 17 37 0
-0.05910291522741318 -0.04319059103727341 2.273189067840576 119 153 92
-0.056762438267469406 -0.04313945397734642 2.2704975605010986 129 168 75
-0.05429936572909355 -0.042986996471881866 2.2624735832214355 146 181 55
-0.05194871500134468 -0.04291415587067604 2.2586398124694824 185 209 51
-0.04955381900072098 -0.042796481400728226 2.252446413040161 180 195 32
-0.04727308452129364 -0.042770884931087494 2.2510993480682373 186 197 56
-0.045000381767749786 -0.04275036230683327 2.250019073486328 194 194 80
-0.04270261526107788 -0.04270261526107788 2.2475061416625977 233 214 137
-0.04043720290064812 -0.042683716863393784 2.246511459350586 255 231 177
-0.038197778165340424 -0.04269162937998772 2.2469279766082764 255 224 186
-0.03598344698548317 -0.042730338871479034 2.248965263366699 193 169 135
-0.03378269821405411 -0.04279141500592232 2.2521798610687256 243 239 201
-0.03165031969547272 -0.04295400157570839 2.2607369422912598 248 254 216
-0.02962404116988182 -0.04329667240381241 2.2787723541259766 246 250 217
-0.027506034821271896 -0.04355122148990631 2.2921695709228516 62 65 38
-0.025296375155448914 -0.04369373619556427 2.299670457839966 62 61 41
-0.02308681048452854 -0.043864939361810684 2.308681011199951 72 70 55
-0.02083987183868885 -0.04399528726935387 2.3155415058135986 7 3 0
-0.018524333834648132 -0.04399528726935387 2.3155415058135986 32 27 8
-0.016152286902070045 -0.04384191706776619 2.307469367980957 21 14 0
-0.013795064762234688 -0.04368437081575394 2.299177408218384 34 24 0
-0.011437702924013138 -0.043463271111249924 2.2875406742095947 138 125 81
-0.009130018763244152 -0.04336758702993393 2.2825045585632324 194 180 135
-0.006809912621974945 -0.04312944412231445 2.2699708938598633 208 191 147
-0.0045297290198504925 -0.04303242266178131 2.264864444732666 250 233 190
-0.0022640815004706383 -0.04301754757761955 2.2640814781188965 159 147 109
0.0 -0.04301754757761955 2.2640814781188965 55 46 5
0.0022641345858573914 -0.04301855340600014 2.264134407043457 88 82 32
0.004529600031673908 -0.04303119704127312 2.2647998332977295 142 142 90
0.006810326129198074 -0.04313206300139427 2.270108699798584 112 121 74
0.009089387953281403 -0.04317459091544151 2.2723469734191895 83 102 57
0.011361734941601753 -0.04317459091544151 2.2723469734191895 95 128 85
0.013620652258396149 -0.04313206300139427 2.270108699798584 74 113 66
0.01581408455967903 -0.0429239384829998 2.259154796600342 68 108 55
0.017947088927030563 -0.042624332010746 2.2433860301971436 82 121 58
0.020004048943519592 -0.042230769991874695 2.2226722240448 83 115 40
0.02201148495078087 -0.04182181879878044 2.201148509979248 109 129 57
0.02394547313451767 -0.041360363364219666 2.17686128616333 154 159 101
0.02577292174100876 -0.040807124227285385 2.1477434635162354 141 142 98
0.027574166655540466 -0.040300704538822174 2.1210896968841553 229 236 205
0.029420332983136177 -0.03992759436368942 2.101452350616455 251 255 231
0.031251586973667145 -0.03958534076809883 2.0834391117095947 255 255 224
0.03317426145076752 -0.03939443081617355 2.0733911991119385 245 242 191
0.03520696237683296 -0.03934895619750023 2.070997714996338 255 248 173
0.03724228963255882 -0.03931130841374397 2.069016218185425 211 202 99
0.039245106279850006 -0.039245106279850006 2.0655319690704346 165 156 27
0.041310638189315796 -0.039245106279850006 2.0655319690704346 208 204 70
0.043367549777030945 -0.03923730552196503 2.0651214122772217 170 174 54
0.045458268374204636 -0.0392594113945961 2.0662848949432373 171 183 81
0.04755646735429764 -0.039285775274038315 2.0676724910736084 166 189 109
0.049641791731119156 -0.039299752563238144 2.0684080123901367 178 196 134
0.051738765090703964 -0.03932145982980728 2.0695505142211914 196 192 145
0.053856734186410904 -0.03935684263706207 2.0714128017425537 162 148 111
0.055963460355997086 -0.03938169404864311 2.072720766067505 176 161 128
0.05805695801973343 -0.03939579054713249 2.073462724685669 255 250 213
0.06021635979413986 -0.039452098309993744 2.0764262676239014 177 185 136
0.0623043030500412 -0.03945939242839813 2.076810121536255 210 219 166
0.06441307812929153 -0.039478983730077744 2.077841281890869 175 169 119
0.06661288440227509 -0.039551399648189545 2.0816526412963867 179 168 122
0.0688193291425705 -0.03962324932217598 2.0854341983795166 172 168 123
0.07093645632266998 -0.03964095562696457 2.0863661766052246 163 167 117
0.07317034155130386 -0.0397210419178009 2.090581178665161 191 202 144
0.07537323981523514 -0.03978031873703003 2.093701124191284 234 242 182
0.0776025801897049 -0.03984997421503067 2.09736704826355 255 252 195
0.07995569705963135 -0.039977848529815674 2.104097366333008 73 61 3
0.08253809809684753 -0.04021086543798447 2.116361379623413 93 89 28
0.08502063900232315 -0.04038480296730995 2.125515937805176 133 134 64
0.08771846443414688 -0.04065001755952835 2.139474630355835 226 235 146
0.09049592167139053 -0.04093863070011139 2.1546647548675537 248 251 144
0.09298169612884521 -0.041084934026002884 2.162364959716797 219 205 80
0.09586578607559204 -0.04139658808708191 2.1787679195404053 245 228 96
0.09919624775648117 -0.04188285768032074 2.2043609619140625 232 227 97
0.10277470201253891 -0.042450420558452606 2.2342326641082764 193 201 82
0.10642300546169281 -0.04302206635475159 2.26431941986084 140 160 65
0.11049988120794296 -0.04373953491449356 2.3020808696746826 149 169 100
0.11529658734798431 -0.04470684006810188 2.3529915809631348 69 71 34
0.11990074068307877 -0.04556227847933769 2.398014783859253 103 99 88
0.12331072241067886 -0.04593928903341293 2.4178574085235596 109 106 113
0.12640085816383362 -0.046184927225112915 2.430785655975342 108 105 122
0.12925176322460175 -0.04633553698658943 2.4387125968933105 107 108 128
0.13182944059371948 -0.046384431421756744 2.4412858486175537 110 110 134
0.13474759459495544 -0.04654916748404503 2.449956178665161 107 107 135
0.13764449954032898 -0.04670080915093422 2.457937479019165 103 104 132
0.14061285555362701 -0.04687095060944557 2.4668922424316406 105 108 127
0.14334769546985626 -0.04695872962474823 2.4715120792388916 103 110 120
0.14614933729171753 -0.04706503823399544 2.477107286453247 98 108 110
0.14944812655448914 -0.047325242310762405 2.49080228805542 95 106 102
0.15231801569461823 -0.047443315386772156 2.497016668319702 92 106 93
0.1550423800945282 -0.04751298576593399 2.500683546066284 89 103 86
0.15745596587657928 -0.04748671501874924 2.499300956726074 88 101 84
0.15952302515506744 -0.04735839366912842 2.492547035217285 84 98 81
0.16197340190410614 -0.047346070408821106 2.491898536682129 77 95 79
0.16441060602664948 -0.04733032360672951 2.491069793701172 71 92 73
0.16677606105804443 -0.047294702380895615 2.489194869995117 69 93 71
0.1687169373035431 -0.04714149236679077 2.4811313152313232 70 95 66
0.170689657330513 -0.04700149968266487 2.4737632274627686 73 99 62
0.1722327470779419 -0.04674888774752617 2.46046781539917 76 105 61
0.1743982881307602 -0.046669960021972656 2.4563138484954834 77 110 57
0.17615662515163422 -0.0464857779443264 2.446619987487793 80 120 60
0.17790980637073517 -0.04630529135465622 2.4371206760406494 96 145 79
0.17975656688213348 -0.046153709292411804 2.429142713546753 105 165 91
0.18218570947647095 -0.046153709292411804 2.429142713546753 105 178 99
0.18461483716964722 -0.046153709292411804 2.429142713546753 89 170 91
0.18720361590385437 -0.04619309678673744 2.431215763092041 76 163 84
0.18963482975959778 -0.04619309678673744 2.431215763092041 72 160 84
0.19190442562103271 -0.04615422710776329 2.4291698932647705 72 160 86
0.19417129456996918 -0.046115681529045105 2.4271411895751953 70 156 85
0.1961669921875 -0.04601447656750679 2.4218146800994873 71 154 84
0.19821612536907196 -0.04592812433838844 2.417269706726074 70 153 81
0.20034436881542206 -0.04586196318268776 2.413787603378296 59 143 66
0.2025945782661438 -0.045824963599443436 2.4118402004241943 57 142 61
0.20495668053627014 -0.045813847333192825 2.411255121231079 57 142 57
0.20745426416397095 -0.04583291709423065 2.4122588634490967 57 143 56
0.21006391942501068 -0.04587602987885475 2.4145278930664062 53 138 53
0.21348682045936584 -0.04609374329447746 2.4259865283966064 53 138 53
0.2169247716665268 -0.046309780329465866 2.437356948852539 49 137 53
0.2199724167585373 -0.04643861576914787 2.4441378116607666 48 136 52
0.22316642105579376 -0.04659518599510193 2.452378273010254 53 142 60
0.22583557665348053 -0.046639956533908844 2.4547345638275146 57 146 62
0.22889277338981628 -0.046763040125370026 2.461212635040283 59 148 64
0.23191173374652863 -0.04687577486038208 2.467146158218384 62 151 67
-0.26377037167549133 -0.04997754096984863 2.7765302658081055 14 16 5
-0.2609938383102417 -0.04997754096984863 2.7765302658081055 8 14 2
-0.2590293288230896 -0.05013470724225044 2.785261631011963 14 28 11
-0.2568565905094147 -0.05025454983115196 2.791919469833374 20 39 20
-0.25570374727249146 -0.0505787618458271 2.8099312782287598 34 57 37
-0.254481703042984 -0.05089633911848068 2.8275744915008545 50 71 52
-0.25406304001808167 -0.05138353630900383 2.8546409606933594 60 74 57
-0.25364425778388977 -0.05188177898526192 2.8823211193084717 50 61 47
-0.2523905336856842 -0.0522187277674675 2.901040554046631 37 45 32
-0.2512422800064087 -0.05258559063076973 2.921421766281128 25 31 21
-0.25009939074516296 -0.05296221747994423 2.94234561920166 9 15 5
-0.24836833775043488 -0.05322178453207016 2.95676589012146 4 11 3
-0.24756263196468353 -0.053688280284404755 2.982682466506958 2 9 1
-0.24568945169448853 -0.053931824862957 2.9962127208709717 5 13 2
-0.2444358617067337 -0.054319076240062714 3.0177266597747803 5 13 2
-0.2425111085176468 -0.05456500127911568 3.031388998031616 8 16 5
-0.2409999817609787 -0.054911382496356964 3.0506324768066406 19 25 15
-0.23850837349891663 -0.0550403892993927 3.0577995777130127 24 34 23
-0.23550154268741608 -0.05505230650305748 3.0584616661071777 27 45 31
-0.23305927217006683 -0.055198248475790024 3.0665695667266846 28 53 34
-0.23003338277339935 -0.055208008736371994 3.0671117305755615 33 58 37
-0.22799886763095856 -0.05545917898416519 3.0810656547546387 37 61 39
-0.2255544811487198 -0.05561617389321327 3.089787483215332 37 56 36
-0.22366853058338165 -0.05591713264584541 3.1065075397491455 34 52 30
-0.22144664824008942 -0.05614139884710312 3.118966817855835 31 46 27
-0.21980100870132446 -0.0565202571451664 3.140014410018921 28 45 26
-0.21793672442436218 -0.05685305595397949 3.158503293991089 29 44 25
-0.21477822959423065 -0.05685305595397949 3.158503293991089 27 44 26
-0.21096043288707733 -0.05667593330144882 3.14866304397583 31 45 28
-0.20664310455322266 -0.056357208639383316 3.1309561729431152 32 49 31
-0.20233556628227234 -0.05603138729929924 3.1128549575805664 34 55 36
-0.1984129399061203 -0.055803634226322174 3.1002020835876465 38 59 42
-0.19454316794872284 -0.055583760142326355 3.087986707687378 44 65 50
-0.18951326608657837 -0.05501997843384743 3.0566656589508057 51 64 55
-0.18526864051818848 -0.05466943234205246 3.0371909141540527 70 69 74
-0.17691585421562195 -0.053074754774570465 2.9485976696014404 46 48 47
-0.17035670578479767 -0.05197323113679886 2.887401819229126 64 83 61
-0.16421759128570557 -0.050964079797267914 2.8313379287719727 64 89 59
-0.15599648654460907 -0.049262046813964844 2.7367804050445557 51 70 42
-0.14878810942173004 -0.04782474413514137 2.656930446624756 62 67 37
-0.14215360581874847 -0.046522993594408035 2.584610939025879 69 54 21
-0.1362794190645218 -0.045426469296216965 2.5236928462982178 53 35 0
-0.1309577077627182 -0.04447619989514351 2.470900058746338 95 94 50
-0.1257386952638626 -0.04352492839097977 2.4180517196655273 222 241 195
-0.12119314819574356 -0.042774051427841187 2.3763363361358643 29 75 26
-0.11732037365436554 -0.04223533347249031 2.346407413482666 70 121 62
-0.11341708153486252 -0.04166341572999954 2.314634323120117 129 163 87
-0.10991031676530838 -0.04121636599302292 2.2897982597351074 132 140 65
-0.10648497939109802 -0.04078147932887077 2.2656378746032715 208 182 125
-0.1038256585597992 -0.040627431124448776 2.257079601287842 181 128 84
-0.10100924968719482 -0.04040369763970375 2.244649887084961 140 72 35
-0.09825160354375839 -0.0401938371360302 2.2329909801483154 255 192 153
-0.0956336110830307 -0.04003266990184784 2.2240374088287354 255 206 157
-0.09309054911136627 -0.03989594802260399 2.2164416313171387 255 225 157
-0.09059014916419983 -0.03977128118276596 2.2095158100128174 246 216 120
-0.08822687715291977 -0.039702095091342926 2.205672025680542 255 241 113
-0.08593908697366714 -0.039664190262556076 2.203566312789917 208 207 39
-0.08381553739309311 -0.039702095091342926 2.205672025680542 207 212 34
-0.08175208419561386 -0.03977128118276596 2.2095158100128174 217 222 58
-0.0798896849155426 -0.0399448424577713 2.2191579341888428 233 233 101
-0.07816644012928009 -0.0401998832821846 2.2333269119262695 215 207 126
-0.07635852694511414 -0.040425099432468414 2.2458388805389404 96 83 31
-0.07453319430351257 -0.04065446928143501 2.2585816383361816 196 184 144
-0.07271713763475418 -0.04090338572859764 2.2724103927612305 134 128 76
-0.07062683999538422 -0.04100913181900978 2.278285264968872 78 82 0
-0.06849367916584015 -0.04109620675444603 2.2831227779388428 142 142 44
-0.06624244898557663 -0.04111599922180176 2.284222364425659 181 165 80
-0.06391505897045135 -0.04108824580907822 2.2826805114746094 138 127 61
-0.06155494228005409 -0.04103662446141243 2.2798125743865967 116 129 83
-0.0592215321958065 -0.04099952057003975 2.2777512073516846 124 147 101
-0.05687614902853966 -0.040950823575258255 2.275045871734619 156 177 108
-0.0544494204223156 -0.040837064385414124 2.268725872039795 170 186 87
-0.052022192627191544 -0.04071301594376564 2.2618343830108643 178 184 48
-0.04967935383319855 -0.040646743029356 2.258152484893799 182 182 32
-0.04729464650154114 -0.04053826630115509 2.2521259784698486 203 202 60
-0.045000381767749786 -0.04050034284591675 2.250019073486328 211 198 84
-0.04266459867358208 -0.040419094264507294 2.2455053329467773 203 163 101
-0.040340568870306015 -0.040340568870306015 2.241142749786377 236 185 156
-0.03809943050146103 -0.040340568870306015 2.241142749786377 255 213 206
-0.03594418615102768 -0.04043720290064812 2.246511459350586 255 224 222
-0.03378269821405411 -0.04053923487663269 2.2521798610687256 250 238 226
-0.03164704516530037 -0.04068905487656593 2.260503053665161 255 254 236
-0.029601845890283585 -0.04098716750741005 2.2770650386810303 220 214 198
-0.027506034821271896 -0.041259050369262695 2.2921695709228516 36 26 14
-0.02537452057003975 -0.041521940380334854 2.306774616241455 43 30 24
-0.023161081597208977 -0.04168994724750519 2.316108226776123 12 0 0
-0.020898064598441124 -0.04179612919688225 2.322007179260254 63 54 37
-0.018576057627797127 -0.04179612919688225 2.322007179260254 42 37 5
-0.016208790242671967 -0.0416797436773777 2.3155415058135986 99 96 45
-0.013849528506398201 -0.041548583656549454 2.3082547187805176 181 180 116
-0.011495886370539665 -0.041385192424058914 2.299177408218384 183 183 113
-0.00915305595844984 -0.04118874669075012 2.2882637977600098 121 124 57
-0.006848963443189859 -0.04109377786517143 2.2829878330230713 176 181 127
-0.004547100979834795 -0.04092390462756157 2.273550271987915 199 207 166
-0.002265620045363903 -0.040781158953905106 2.265619993209839 160 169 140
0.0 -0.04077136516571045 2.265075922012329 46 56 29
0.0022652586922049522 -0.04077465087175369 2.265258550643921 110 121 87
0.0045356592163443565 -0.040820926427841187 2.267829418182373 53 61 20
0.006810226012021303 -0.040861353278160095 2.2700753211975098 158 160 111
0.009080435149371624 -0.04086195304989815 2.270108699798584 108 117 64
0.011350543238222599 -0.04086195304989815 2.270108699798584 63 86 32
0.01359474752098322 -0.040784239768981934 2.265791177749634 66 105 52
0.015750708058476448 -0.04050181806087494 2.250101089477539 61 111 60
0.017901262268424034 -0.040277838706970215 2.2376577854156494 52 105 51
0.019938278943300247 -0.039876557886600494 2.215364456176758 32 78 16
0.021939264610409737 -0.039490677416324615 2.1939265727996826 57 90 35
0.023810414597392082 -0.03896249458193779 2.164583206176758 70 82 44
0.025600118562579155 -0.03840017691254616 2.13334321975708 199 202 181
0.0274860467761755 -0.0380575992166996 2.1143112182617188 248 255 248
0.029353510588407516 -0.03774022310972214 2.096679210662842 232 242 233
0.031177913770079613 -0.037413496524095535 2.0785276889801025 241 250 223
0.03313596546649933 -0.0372779555618763 2.070997714996338 250 255 205
0.035172365605831146 -0.03724132478237152 2.068962574005127 255 255 172
0.037171926349401474 -0.037171926349401474 2.0651071071624756 255 248 139
0.039151985198259354 -0.03709135204553604 2.0606307983398438 239 221 95
0.041259489953517914 -0.037133537232875824 2.062974452972412 204 186 58
0.04332246258854866 -0.037133537232875824 2.062974452972412 170 161 44
0.045385438948869705 -0.037133537232875824 2.062974452972412 180 186 80
0.04744841158390045 -0.037133537232875824 2.062974452972412 153 183 87
0.049532677978277206 -0.03714950755238533 2.063861608505249 183 211 127
0.05165712162852287 -0.03719312697649002 2.0662848949432373 164 165 99
0.053799550980329514 -0.03724583983421326 2.069213390350342 200 187 134
0.05587796866893768 -0.037251975387334824 2.069554328918457 173 160 115
0.05795973911881447 -0.03725982829928398 2.069990634918213 172 171 123
0.06005706638097763 -0.037276796996593475 2.0709333419799805 220 246 185
0.06218547001481056 -0.03731128200888634 2.0728490352630615 178 207 141
0.06436245888471603 -0.03737174719572067 2.0762083530426025 205 215 152
0.06645792722702026 -0.0373825803399086 2.076810121536255 148 150 85
0.068670853972435 -0.037456829100847244 2.080935001373291 162 165 98
0.07078243046998978 -0.03747304528951645 2.081835985183716 160 165 98
0.0730891302227974 -0.0375886932015419 2.0882608890533447 141 152 83
0.07526092231273651 -0.037630461156368256 2.090581178665161 165 175 106
0.07749717682600021 -0.0377013273537159 2.0945181846618652 232 227 161
0.07979907095432281 -0.03779955953359604 2.0999755859375 213 208 142
0.0822925791144371 -0.03798118978738785 2.1100661754608154 35 40 0
0.08497224003076553 -0.03823750466108322 2.1243059635162354 141 152 84
0.08749309927225113 -0.03841159865260124 2.1339778900146484 211 226 157
0.0904851034283638 -0.038779329508543015 2.154407262802124 232 239 161
0.09302455931901932 -0.038940511643886566 2.1633617877960205 218 203 110
0.09615147113800049 -0.03933469206094742 2.185260772705078 230 209 104
0.09969745576381683 -0.039878979325294495 2.215498924255371 215 199 86
0.10331565141677856 -0.04042786359786987 2.245992422103882 222 215 108
0.10702930390834808 -0.0409899465739727 2.277219295501709 171 177 91
0.11119572818279266 -0.0416983962059021 2.316577672958374 155 163 104
0.1157902255654335 -0.04253518581390381 2.3630659580230713 67 62 42
0.11982890218496323 -0.043138403445482254 2.396578073501587 101 95 99
0.12265842407941818 -0.043291207402944565 2.405067205429077 103 100 121
0.12572859227657318 -0.04352143034338951 2.4178574085235596 98 97 128
0.1288316398859024 -0.04375414177775383 2.430785655975342 96 99 130
0.13154339790344238 -0.04384779930114746 2.4359889030456543 99 102 135
0.13412919640541077 -0.04389682412147522 2.4387125968933105 103 103 141
0.13712918758392334 -0.04407723620533943 2.448735475540161 106 106 144
0.1396474987268448 -0.04409920796751976 2.449956178665161 102 101 133
0.14217634499073029 -0.04412369430065155 2.4513163566589355 105 105 131
0.14554664492607117 -0.044404059648513794 2.4668922424316406 100 103 122
0.14803491532802582 -0.044410474598407745 2.4672486782073975 99 103 115
0.1510065346956253 -0.0445593036711216 2.4755170345306396 97 100 105
0.15442973375320435 -0.0448344387114048 2.49080228805542 95 96 98
0.15700072050094604 -0.04485734924674034 2.492074966430664 96 94 95
0.15942847728729248 -0.04483925551176071 2.491069793701172 93 89 90
0.16191953420639038 -0.04483925551176071 2.491069793701172 88 86 87
0.16441060602664948 -0.04483925551176071 2.491069793701172 86 85 83
0.16695719957351685 -0.04485417157411575 2.491898536682129 85 86 81
0.16933998465538025 -0.04482528567314148 2.4902937412261963 80 83 72
0.17197395861148834 -0.0448627732694149 2.4923763275146484 78 86 65
0.17418555915355682 -0.04479056969285011 2.4883651733398438 81 94 66
0.17654578387737274 -0.044758085161447525 2.486560344696045 84 101 65
0.1783428192138672 -0.0445857048034668 2.4769837856292725 81 108 63
0.18021075427532196 -0.0444355271756649 2.4686405658721924 81 121 68
0.1814892739057541 -0.044146038591861725 2.4525578022003174 83 137 75
0.1838558316230774 -0.04412539675831795 2.451411008834839 95 162 93
0.18581123650074005 -0.04400792345404625 2.444884777069092 79 157 82
0.18780462443828583 -0.043902378529310226 2.439021110534668 65 151 76
0.19023491442203522 -0.04390035942196846 2.4389090538024902 61 152 75
0.19223253428936005 -0.04379981383681297 2.4333231449127197 63 154 77
0.1944887340068817 -0.043759964406490326 2.4311091899871826 62 150 74
0.1966787725687027 -0.043706391006708145 2.428133010864258 64 148 71
0.19857825338840485 -0.04359034448862076 2.4216859340667725 67 150 72
0.20063337683677673 -0.04351085424423218 2.417269706726074 57 140 62
0.2027735710144043 -0.04345148056745529 2.413971185684204 55 138 58
0.20512379705905914 -0.043437980115413666 2.4132211208343506 53 136 54
0.2076263129711151 -0.04345666617155075 2.414259433746338 52 136 51
0.21006391942501068 -0.043461501598358154 2.4145278930664062 49 134 51
0.21348682045936584 -0.0436677560210228 2.4259865283966064 49 134 51
0.21699433028697968 -0.043886490166187286 2.438138484954834 49 136 55
0.2205175906419754 -0.04410351440310478 2.4501953125 50 137 58
0.2231709361076355 -0.04414369910955429 2.452427864074707 56 144 66
0.2258150428533554 -0.04418120160698891 2.4545114040374756 61 149 71
0.2284890115261078 -0.04422367736697197 2.4568710327148438 63 154 75
0.23191173374652863 -0.04440863057971001 2.467146158218384 67 158 79
-0.2632775902748108 -0.047112837433815 2.771343231201172 3 11 0
-0.2605062425136566 -0.047112837433815 2.771343231201172 3 11 0
-0.2581673860549927 -0.047191888093948364 2.7759933471679688 21 29 14
-0.2556326389312744 -0.04723646491765976 2.7786154747009277 31 42 26
-0.2546813488006592 -0.047577839344739914 2.798696279525757 44 63 44
-0.2537444233894348 -0.04792950302362442 2.819382429122925 56 79 59
-0.2535306513309479 -0.04842720180749893 2.848658800125122 65 88 68
-0.25240352749824524 -0.04875977709889412 2.8682219982147217 62 81 62
-0.2510944604873657 -0.04906444251537323 2.886143445968628 47 58 44
-0.249839648604393 -0.04938690736889839 2.9051120281219482 36 42 30
-0.24836371839046478 -0.049672745168209076 2.9219260215759277 21 24 13
-0.247157022356987 -0.05001987889409065 2.94234561920166 15 21 9
-0.24529537558555603 -0.05024122819304466 2.9553661346435547 10 20 9
-0.24451372027397156 -0.050691869109869 2.981874465942383 11 23 9
-0.242693230509758 -0.050935618579387665 2.9962127208709717 10 22 8
-0.24062518775463104 -0.05113285407423973 3.007814884185791 13 24 10
-0.2388349175453186 -0.051394857466220856 3.023226737976074 22 30 17
-0.23644834756851196 -0.051533617079257965 3.031388998031616 26 38 24
-0.2336711585521698 -0.051589738577604294 3.0346903800964355 27 48 31
-0.23089540004730225 -0.05164765939116478 3.038097381591797 29 54 33
-0.22792039811611176 -0.051661957055330276 3.038938522338867 33 58 36
-0.2255643755197525 -0.0518188439309597 3.0481672286987305 36 62 37
-0.22339093685150146 -0.052022550255060196 3.060149908065796 39 58 36
-0.22118604183197021 -0.05222448706626892 3.072028398513794 36 55 33
-0.21921378374099731 -0.0524878092110157 3.0875179767608643 32 50 28
-0.21717065572738647 -0.05274144932627678 3.102437973022461 30 49 27
-0.21456623077392578 -0.05286414921283722 3.1096556186676025 32 50 28
-0.21145659685134888 -0.05286414921283722 3.1096556186676025 31 50 30
-0.20834693312644958 -0.05286414921283722 3.1096556186676025 34 51 32
-0.2046133428812027 -0.052703436464071274 3.1002020835876465 36 55 36
-0.20112714171409607 -0.05260248854756355 3.094263792037964 35 58 38
-0.19719545543193817 -0.052380044013261795 3.081178903579712 39 62 42
-0.19284522533416748 -0.05203760042786598 3.06103515625 37 62 43
-0.18841172754764557 -0.05166128650307655 3.0388989448547363 45 63 51
-0.18316633999347687 -0.051046356558799744 3.0027267932891846 65 67 66
-0.17691585421562195 -0.05012616142630577 2.9485976696014404 71 73 70
-0.17035670578479767 -0.049085833132267 2.887401819229126 75 90 71
-0.16421759128570557 -0.048132747411727905 2.8313379287719727 62 78 51
-0.15679843723773956 -0.046764448285102844 2.750849723815918 59 68 39
-0.14972403645515442 -0.04545193910598755 2.6736433506011963 67 63 34
-0.14299292862415314 -0.04419781640172005 2.5998713970184326 47 32 3
-0.13751931488513947 -0.043293118476867676 2.546653985977173 60 46 17
-0.13146978616714478 -0.04216955602169037 2.4805619716644287 20 27 0
-0.12615765631198883 -0.04124384745955467 2.4261085987091064 39 67 27
-0.1216464415192604 -0.040548816323280334 2.3852243423461914 83 131 89
-0.11764132976531982 -0.03999805450439453 2.3528265953063965 59 107 59
-0.11342541873455048 -0.039351679384708405 2.3148045539855957 81 105 47
-0.10991031676530838 -0.03892657160758972 2.2897982597351074 149 142 87
-0.10637223720550537 -0.03847506642341614 2.2632391452789307 190 143 101
-0.10348529368638992 -0.038244567811489105 2.249680280685425 124 47 21
-0.1008303314447403 -0.03809146210551262 2.2406740188598633 136 34 22
-0.0981433168053627 -0.03791901096701622 2.230530023574829 139 32 26
-0.09562553465366364 -0.03780544549226761 2.2238495349884033 145 51 39
-0.09295903146266937 -0.03762627765536308 2.2133102416992188 146 66 33
-0.09049079567193985 -0.037520576268434525 2.207092523574829 130 62 0
-0.08812782913446426 -0.037454329431056976 2.203195810317993 176 128 28
-0.08588461577892303 -0.03743688762187958 2.20216965675354 238 212 73
-0.08372143656015396 -0.037454329431056976 2.203195810317993 206 195 43
-0.08176788687705994 -0.03756903111934662 2.2099428176879883 206 203 64
-0.0798896849155426 -0.03772568702697754 2.2191579341888428 231 231 119
-0.07817280292510986 -0.03796964883804321 2.233508586883545 216 213 144
-0.07651430368423462 -0.03825715184211731 2.250420570373535 96 94 55
-0.07469888776540756 -0.038481250405311584 2.2636027336120605 75 73 48
-0.07289762794971466 -0.03872686251997948 2.278050661087036 71 72 38
-0.0708124116063118 -0.038832616060972214 2.284271478652954 76 85 22
-0.06859338283538818 -0.03886958584189415 2.2864460945129395 139 145 71
-0.0663103461265564 -0.038871582597494125 2.2865636348724365 199 191 128
-0.06402378529310226 -0.038871582597494125 2.2865636348724365 186 179 127
-0.06173156201839447 -0.038868021219968796 2.2863540649414062 151 158 117
-0.05934969335794449 -0.03880557045340538 2.2826805114746094 164 175 133
-0.05694743990898132 -0.03872426226735115 2.277897596359253 162 167 111
-0.05455653741955757 -0.0386442169547081 2.273189067840576 189 188 108
-0.05205078795552254 -0.03847232460975647 2.263077735900879 183 172 64
-0.04969007521867752 -0.03839688003063202 2.2586398124694824 201 182 62
-0.047263067215681076 -0.038260579109191895 2.250622272491455 233 207 94
-0.04491010680794716 -0.03817359358072281 2.2455053329467773 244 206 121
-0.04256385564804077 -0.038083452731370926 2.2402029037475586 114 54 17
-0.0402640700340271 -0.03802718222141266 2.2368929386138916 112 43 38
-0.03802718222141266 -0.03802718222141266 2.2368929386138916 97 31 43
-0.0358421616256237 -0.0380822978913784 2.2401349544525146 153 99 115
-0.03369767218828201 -0.03819069638848305 2.246511459350586 255 236 242
-0.031562238931655884 -0.03832557797431946 2.2544455528259277 246 222 220
-0.029490483924746513 -0.03856448084115982 2.268498659133911 239 222 215
-0.027448441833257675 -0.038885295391082764 2.287370204925537 179 164 157
-0.025296375155448914 -0.03909439966082573 2.299670457839966 85 69 69
-0.023222599178552628 -0.039478421211242676 2.3222599029541016 77 64 58
-0.020913226529955864 -0.039502762258052826 2.3236918449401855 134 125 110
-0.018590286374092102 -0.039504360407590866 2.3237857818603516 197 192 162
-0.01625405065715313 -0.03947412595152855 2.322007179260254 193 191 143
-0.013884290121495724 -0.03933882340788841 2.3140482902526855 153 154 96
-0.011541273444890976 -0.039240334182977676 2.3082547187805176 118 123 59
-0.009189872071146965 -0.03905695676803589 2.2974679470062256 188 198 137
-0.0068647912703454494 -0.03890048712491989 2.2882637977600098 53 69 22
-0.004565976094454527 -0.03881079703569412 2.2829878330230713 65 85 48
-0.00227370741777122 -0.03865302726626396 2.273707389831543 113 136 107
0.0 -0.03857610002160072 2.2691822052001953 101 124 96
0.0022691823542118073 -0.03857610002160072 2.2691822052001953 127 151 119
0.004536687862128019 -0.03856184706091881 2.268343925476074 109 125 88
0.006806171964854002 -0.03856831043958664 2.268723964691162 60 66 20
0.009073375724256039 -0.03856184706091881 2.268343925476074 148 155 104
0.011328955180943012 -0.038518451154232025 2.265791177749634 99 118 62
0.013554928824305534 -0.038405634462833405 2.259154796600342 100 131 74
0.015703702345490456 -0.038137566298246384 2.2433860301971436 69 113 60
0.01779819093644619 -0.03782115504145622 2.224773645401001 82 130 78
0.019851204007864 -0.03749672323465347 2.2056894302368164 57 101 50
0.02180952951312065 -0.037076205015182495 2.180953025817871 38 70 29
0.02363833598792553 -0.036531973630189896 2.148939609527588 129 142 122
0.02545768767595291 -0.03606506064534187 2.121474027633667 252 255 248
0.027344033122062683 -0.035757582634687424 2.1033871173858643 242 246 247
0.029299912974238396 -0.035578466951847076 2.092850923538208 251 255 250
0.031100867316126823 -0.03524765372276306 2.0733911991119385 239 250 216
0.033100664615631104 -0.03516945615410805 2.068791389465332 248 255 197
0.03508634865283966 -0.03508634865283966 2.0639028549194336 237 243 147
0.03707326576113701 -0.03501364216208458 2.0596258640289307 212 209 92
0.03911921754479408 -0.03500140830874443 2.058906316757202 218 203 76
0.041192516684532166 -0.03501364216208458 2.0596258640289307 220 202 76
0.043263427913188934 -0.03502277657389641 2.0601632595062256 190 181 64
0.045333877205848694 -0.035030726343393326 2.0606307983398438 182 188 78
0.04739450663328171 -0.035030726343393326 2.0606307983398438 163 191 88
0.04947195202112198 -0.03504263237118721 2.061331272125244 170 199 106
